# .PCD v0.7 - Point Cloud Data file format
VERSION 0.7
FIELDS x y z
SIZE 4 4 4
TYPE F F F
COUNT 1 1 1
WIDTH 1432
HEIGHT 1
VIEWPOINT 0 0 0 1 0 0 0
POINTS 1432
DATA ascii
-0.58463365 -0.32619905 -1.8353363
-0.59261 -0.32817999 -1.8298
-0.59325999 -0.33052334 -1.8316332
-0.58440751 -0.33370087 -1.82455
-0.57564622 -0.33721125 -1.8150625
-0.56478667 -0.33948001 -1.8085333
-0.5844925 -0.34162876 -1.8114376
-0.59509081 -0.34420833 -1.8044167
-0.60420668 -0.34849 -1.7972332
-0.61393291 -0.35089138 -1.7941858
-0.60484767 -0.35421231 -1.7859077
-0.6353125 -0.3597725 -1.7774749
-0.565736 -0.36226401 -1.7739799
-0.5750317 -0.36494163 -1.7661915
-0.38435602 -0.36891598 -1.75676
-0.39482465 -0.37336868 -1.7532934
-0.10557465 -0.54219663 -1.4540331
-0.11566166 -0.54588389 -1.4438665
-0.20597154 -0.54876232 -1.4369
-0.21363625 -0.55172622 -1.43155
-0.20474374 -0.55587918 -1.4253292
-0.23583999 -0.55921626 -1.4171376
-0.22451 -0.55882001 -1.4094
-0.2462175 -0.56213194 -1.4146751
-0.25488862 -0.56631994 -1.4050273
-0.24837001 -0.57012999 -1.4012001
-0.30340201 -0.56842601 -1.39868
-0.3139872 -0.57177889 -1.3930223
-0.30438778 -0.57667506 -1.385372
-0.29353401 -0.58072394 -1.38184
-0.29681247 -0.57858247 -1.3784
-0.30447423 -0.58330363 -1.3739526
-0.31420359 -0.58646441 -1.3658479
-0.30531362 -0.59170729 -1.3631181
-0.17526962 -0.59591955 -1.3547461
-0.16662444 -0.59900779 -1.3476777
-0.23578 -0.60206813 -1.3430626
-0.20512997 -0.60637134 -1.3358864
-0.21467999 -0.6084736 -1.3273643
-0.20478889 -0.61296946 -1.3221333
-0.18520458 -0.6345945 -1.2853056
-0.19599666 -0.63082331 -1.2922
-0.197595 -0.62957501 -1.2886
-0.184844 -0.62725759 -1.295512
-0.17561249 -0.62242371 -1.3045001
-0.18329599 -0.61923999 -1.3085001
-0.19438824 -0.61622614 -1.3160037
-0.095126778 -0.53916222 -1.4577889
-0.10514227 -0.53464097 -1.4653728
-0.11567917 -0.53193414 -1.4724668
-0.10589445 -0.52790111 -1.4763947
-0.13525501 -0.52354997 -1.4844285
-0.11583533 -0.51782006 -1.49692
-0.085205548 -0.51446086 -1.5055909
-0.098313004 -0.51003999 -1.5113
-0.095358334 -0.50806665 -1.5088
-0.085533209 -0.50651109 -1.5165685
-0.07551378 -0.50308222 -1.5236478
-0.054224774 -0.49605608 -1.5355223
-0.064585529 -0.49215105 -1.5437895
-0.075088002 -0.48877248 -1.546625
-0.064795472 -0.48571166 -1.5553735
-0.015452917 -0.48169753 -1.5640917
-0.30514732 -0.47770199 -1.5667133
-0.31411734 -0.47338003 -1.5749105
-0.30168 -0.46987998 -1.5771999
-0.29549071 -0.46763355 -1.5847356
-0.28473845 -0.46303529 -1.5944052
-0.31558669 -0.45873168 -1.5971833
-0.32547063 -0.45543203 -1.6046735
-0.33546624 -0.45153999 -1.6135377
-0.32596374 -0.44885752 -1.6172249
-0.355266 -0.44405735 -1.6266935
-0.34456 -0.442002 -1.6320202
-0.3749207 -0.43746644 -1.636714
-0.34565943 -0.4332042 -1.6454474
-0.35624999 -0.43007001 -1.6526999
-0.34510002 -0.42812419 -1.6567416
-0.33478668 -0.42332587 -1.6641334
-0.34330669 -0.41879001 -1.6688666
-0.32773 -0.42052001 -1.6712
-0.35529259 -0.41647685 -1.6753683
-0.44492897 -0.41233 -1.68247
-0.45521498 -0.40807 -1.6893001
-0.4457894 -0.40573061 -1.6953186
-0.47466141 -0.40152287 -1.7016715
-0.32587373 -0.39921871 -1.7063
-0.33473715 -0.39451641 -1.7152714
-0.38481 -0.39061499 -1.722
-0.39509702 -0.38843697 -1.7260201
-0.38531929 -0.38328642 -1.7350782
-0.37152001 -0.38117999 -1.7410001
-0.38511693 -0.37774846 -1.7456924
0.40548602 0.43601003 -1.7338798
0.41519833 0.43222997 -1.7267667
0.40617499 0.42822748 -1.7228999
0.33899 0.40000001 -1.6781
0.40511 0.37546167 -1.6359167
0.41392002 0.37085 -1.6274667
0.40448749 0.36785501 -1.6218251
0.42421001 0.36126 -1.6073
0.19481666 0.34938666 -1.5918001
0.1853075 0.35202751 -1.5980749
0.18515858 0.34619713 -1.5881716
0.177415 0.34170002 -1.5792
0.18454428 0.33786431 -1.5724
0.20495501 0.33096498 -1.55925
0.19508572 0.33290145 -1.5652571
0.21502101 0.327108 -1.5550801
0.20497142 0.32257143 -1.5473143
0.40402222 0.31657222 -1.5352889
0.41641998 0.31184 -1.529
0.40456501 0.30915001 -1.5236001
0.39532503 0.30445668 -1.5138334
0.38479748 0.30102998 -1.50775
0.37574664 0.29808667 -1.5029167
0.38426298 0.29359001 -1.49488
0.38544109 0.28715777 -1.4846444
0.3349075 0.28116 -1.473025
0.39484 0.27576199 -1.4655899
0.36505333 0.27173999 -1.459
0.37529668 0.26872 -1.45375
0.36460847 0.26315844 -1.4439769
0.62981999 0.016476 -1.4586999
0.62353498 0.0061359 -1.4474
0.63529187 0.0050921612 -1.4568062
-0.10647001 -0.27945668 -1.9198002
-0.13434818 -0.28361544 -1.9150543
-0.12590499 -0.28909251 -1.9070499
-0.13437666 -0.29153499 -1.9016167
-0.14462216 -0.29611713 -1.8932713
-0.15415749 -0.29879999 -1.88635
-0.12478167 -0.30211499 -1.8831167
-0.11545166 -0.30625334 -1.8739415
-0.10012 -0.31051999 -1.8705
-0.10683 -0.308732 -1.86708
-0.11538572 -0.31325001 -1.8664571
-0.084524252 -0.31783125 -1.855125
-0.55912 -0.32056001 -1.8511
-0.54463625 -0.32248875 -1.8447499
-0.56920999 -0.32769001 -1.8271
-0.57555115 -0.32605779 -1.8348334
-0.56537998 -0.33028501 -1.8303
-0.57509446 -0.33323333 -1.8266222
-0.58640492 -0.33649752 -1.8163249
-0.57727003 -0.34117666 -1.8110332
-0.56481785 -0.34397143 -1.8053286
-0.62396002 -0.34894001 -1.7897
-0.63558704 -0.347886 -1.7961299
-0.63558799 -0.35576573 -1.7850069
-0.56762999 -0.3603 -1.7801
-0.60500664 -0.35892665 -1.7780666
-0.59534109 -0.36229888 -1.7733555
-0.58466905 -0.36531365 -1.7663364
-0.37110999 -0.36872 -1.7593
-0.36451846 -0.37361234 -1.754123
-0.096372455 -0.54176819 -1.4546181
-0.086016506 -0.54601836 -1.4463416
-0.23500112 -0.54825777 -1.4368891
-0.22594377 -0.5519675 -1.4321749
-0.23430315 -0.55589712 -1.4254119
-0.20529167 -0.55885667 -1.4164
-0.27515897 -0.56238419 -1.4147159
-0.26418948 -0.56710851 -1.4046526
-0.29522628 -0.56830871 -1.3977875
-0.28519261 -0.57282919 -1.3939871
-0.295082 -0.57716852 -1.3867601
-0.303404 -0.57904398 -1.3769999
-0.30969 -0.58130503 -1.3828001
-0.29551625 -0.5838238 -1.3759334
-0.28471234 -0.58778411 -1.3663765
-0.29456127 -0.5911237 -1.363075
-0.18482779 -0.59450889 -1.3547332
-0.19489728 -0.5984509 -1.3476547
-0.20547441 -0.60196251 -1.3428249
-0.23509078 -0.60637003 -1.335912
-0.22172999 -0.60965002 -1.3279001
-0.227935 -0.61128497 -1.33145
-0.23459893 -0.61285526 -1.3240473
-0.17438729 -0.63390732 -1.2843654
-0.16408531 -0.63139999 -1.2927933
-0.17531081 -0.62652445 -1.2961481
-0.1848862 -0.62232 -1.3041379
-0.17574498 -0.618976 -1.3085899
-0.19442001 -0.62053001 -1.3132
-0.16489652 -0.61636651 -1.3165692
-0.10635666 -0.53874224 -1.4581555
-0.095928892 -0.53531659 -1.4647501
-0.085714228 -0.53094327 -1.473989
-0.095716804 -0.52829605 -1.47568
-0.14625667 -0.52324891 -1.4857779
-0.1579825 -0.52090001 -1.492775
-0.086272784 -0.51813436 -1.4948643
-0.11626001 -0.51349455 -1.5053051
-0.1058975 -0.50906247 -1.5078001
-0.11578459 -0.50682622 -1.5154835
-0.044960573 -0.50339764 -1.5246714
-0.073506802 -0.49802199 -1.5288
-0.064773783 -0.49696791 -1.5332474
-0.054717999 -0.50014496 -1.5318751
-0.054986238 -0.49163353 -1.5442059
-0.043206804 -0.48904401 -1.54914
-0.054134566 -0.48610479 -1.5553858
-0.025240127 -0.48221189 -1.5643375
-0.29574999 -0.47752377 -1.5662999
-0.031486001 -0.48019001 -1.5719
-0.28495634 -0.47305945 -1.5744001
-0.31821501 -0.47079498 -1.5803001
-0.29505 -0.46998999 -1.5776
-0.30446666 -0.46690834 -1.5856776
-0.31392822 -0.46335292 -1.5943943
-0.35456464 -0.45650923 -1.6046536
-0.34403223 -0.45136002 -1.6145221
-0.35493097 -0.44807202 -1.6172301
-0.32496139 -0.4455829 -1.624157
-0.33499196 -0.441892 -1.6328599
-0.38483599 -0.438878 -1.6369998
-0.33461109 -0.43314111 -1.6445279
-0.32606751 -0.43114251 -1.6517999
-0.33480546 -0.42736819 -1.6548457
-0.34509531 -0.42352533 -1.6633534
-0.35460001 -0.420555 -1.671375
-0.32501933 -0.41648796 -1.6756867
-0.47549456 -0.41170362 -1.6843818
-0.46535602 -0.40889797 -1.6859601
-0.47508004 -0.40494868 -1.6943533
-0.44468376 -0.401665 -1.7014625
-0.35505998 -0.39804336 -1.7070665
-0.34513 -0.39630461 -1.7136769
-0.37418249 -0.39059252 -1.7239
-0.36575332 -0.38804111 -1.7279888
-0.37548122 -0.38351688 -1.7344187
-0.38314 -0.38097 -1.7401
-0.37450585 -0.37737998 -1.7450584
0.41460428 0.43690285 -1.7349713
0.40410995 0.4316617 -1.7264667
0.41390002 0.42815748 -1.7226
0.32438999 0.40177 -1.6786
0.41425571 0.37491432 -1.6340998
0.40466666 0.37059331 -1.6264
0.41536251 0.36782253 -1.6235249
0.4227075 0.36309999 -1.6155249
0.19560333 0.35288167 -1.5974998
0.18621667 0.34981334 -1.5938001
0.19471374 0.34542 -1.5851376
0.19495624 0.33812502 -1.5741625
0.21698 0.33107001 -1.5598
0.18493751 0.33286375 -1.564525
0.20469625 0.32748625 -1.555475
0.21436 0.32208797 -1.54676
0.41499278 0.31587818 -1.535
0.40629497 0.31214002 -1.5279666
0.41492748 0.308725 -1.5215501
0.3848733 0.30501667 -1.5152668
0.396025 0.3011975 -1.50855
0.36459169 0.29840669 -1.5045668
0.39513001 0.293906 -1.4956599
0.39485168 0.28714913 -1.4846083
0.32519749 0.28158626 -1.475275
0.39851999 0.27844 -1.4701
0.385005 0.276362 -1.4655302
0.37509713 0.27212572 -1.4586999
0.36616427 0.26863286 -1.4540714
0.37521771 0.26316229 -1.4439921
0.38119 0.25924999 -1.4400001
0.637025 0.02649625 -1.4633999
0.62232494 0.017059501 -1.4451499
0.63488996 0.0105585 -1.45705
0.62538832 0.0038503686 -1.4543834
-0.12523916 -0.28524831 -1.91505
-0.13493286 -0.28827715 -1.9074142
-0.12504715 -0.29196143 -1.9015571
-0.15626092 -0.29549819 -1.8954453
-0.126435 -0.30024999 -1.8901501
-0.149545 -0.29894 -1.8872499
-0.13402554 -0.30298334 -1.8827777
-0.10524112 -0.30674666 -1.8761446
-0.11542001 -0.31050667 -1.8703667
-0.1044325 -0.31311834 -1.8652917
-0.09401799 -0.31749445 -1.8544
-0.55530608 -0.32356501 -1.8433899
-0.56473202 -0.32705799 -1.8356701
-0.5757975 -0.32875499 -1.8273749
-0.57353997 -0.33161667 -1.8304
-0.56524336 -0.3338967 -1.8244667
-0.59542501 -0.33689857 -1.8161572
-0.57427996 -0.34394798 -1.8050902
-0.6262489 -0.34765223 -1.7962556
-0.63448 -0.35126665 -1.7919334
-0.62563109 -0.35436177 -1.7848471
-0.61497998 -0.35821167 -1.77775
-0.58579993 -0.36179778 -1.7757555
-0.36822 -0.36882001 -1.7598
-0.59513998 -0.36603335 -1.7655998
-0.37570801 -0.37231401 -1.7551999
-0.085567445 -0.54159552 -1.4531666
-0.0957077 -0.54517674 -1.4445046
-0.082382999 -0.55093002 -1.4402
-0.224996 -0.54899102 -1.43584
-0.23502092 -0.55167365 -1.4330817
-0.22425553 -0.555794 -1.425415
-0.21267714 -0.55861002 -1.4171143
-0.26525366 -0.56282592 -1.4140952
-0.2655867 -0.57089001 -1.4030666
-0.2745516 -0.56673205 -1.4039961
-0.285422 -0.568564 -1.39902
-0.29490685 -0.57244468 -1.3942211
-0.28467315 -0.57789046 -1.3848366
-0.31472999 -0.58069199 -1.3842599
-0.28556186 -0.58330739 -1.3756926
-0.294705 -0.58725059 -1.3650889
-0.28586501 -0.59072 -1.3630999
-0.19456063 -0.59465516 -1.354532
-0.18432499 -0.59874505 -1.3466834
-0.21376501 -0.60184664 -1.3431001
-0.22579734 -0.60573834 -1.3344632
-0.23275501 -0.61058497 -1.3335
-0.23512201 -0.60925597 -1.32708
-0.22514942 -0.61209506 -1.3245335
-0.16447109 -0.6340782 -1.2838926
-0.17626801 -0.63101798 -1.2915399
-0.17271501 -0.62924999 -1.2895
-0.16576463 -0.62680078 -1.296554
-0.19531137 -0.6225813 -1.3049724
-0.16578667 -0.61888504 -1.3075167
-0.17467272 -0.61700147 -1.3146682
-0.11539999 -0.5386622 -1.4584444
-0.085594796 -0.53483957 -1.4656916
-0.095664337 -0.53198665 -1.471611
-0.087081298 -0.52774805 -1.4773901
-0.15559348 -0.52327812 -1.485445
-0.14221001 -0.52221 -1.49055
-0.082006998 -0.51953 -1.49
-0.095248565 -0.51752573 -1.49585
-0.10541894 -0.51378685 -1.5038108
-0.116025 -0.50963998 -1.50765
-0.10641376 -0.50673509 -1.5151563
-0.054889061 -0.50317252 -1.5246251
-0.045086004 -0.50055254 -1.53195
-0.075938776 -0.49595165 -1.5346
-0.068883002 -0.49763 -1.5299
-0.043641921 -0.49125692 -1.5439078
-0.056931499 -0.48874003 -1.54925
-0.044716787 -0.48637286 -1.5557572
-0.034661911 -0.48188999 -1.5635453
-0.27737001 -0.47999999 -1.5599999
-0.28493801 -0.47785467 -1.5665134
-0.29507124 -0.47336435 -1.5753562
-0.28582168 -0.46863833 -1.5788499
-0.31529248 -0.46714628 -1.5845063
-0.30586168 -0.46292081 -1.5957417
-0.294745 -0.45915502 -1.5997
-0.34545666 -0.45538864 -1.6057132
-0.35539469 -0.45227936 -1.6126866
-0.34674001 -0.44864666 -1.6169834
-0.33493546 -0.44437274 -1.6255454
-0.32457 -0.44186276 -1.6326089
-0.39526999 -0.43764454 -1.636546
-0.32511571 -0.43460926 -1.6448784
-0.3331925 -0.43057001 -1.65295
-0.32472149 -0.42727855 -1.6552786
-0.35485598 -0.42293 -1.6652399
-0.34393501 -0.42170751 -1.67075
-0.32301998 -0.4197 -1.6679499
-0.3353475 -0.41692936 -1.6748062
-0.46346202 -0.41146603 -1.6847
-0.47428998 -0.40869197 -1.6866001
-0.46430609 -0.40518001 -1.6950001
-0.45533502 -0.40098128 -1.7033252
-0.345534 -0.39826998 -1.7088
-0.35544753 -0.39488754 -1.7149249
-0.3652814 -0.39084715 -1.7236
-0.37553501 -0.38837668 -1.7281666
-0.36494428 -0.3838436 -1.7334499
-0.39458001 -0.37882999 -1.7384
-0.36556092 -0.37740728 -1.7463365
0.1368725 0.351915 -1.5975499
0.12367666 0.34962001 -1.5928999
0.1455975 0.34170002 -1.579175
0.13480636 0.34528545 -1.5854818
0.13586399 0.338126 -1.57338
0.1236525 0.33316749 -1.5641251
0.11487 0.33111 -1.5599
0.10448555 0.32713446 -1.5541555
0.11424833 0.32264331 -1.5483999
0.39500272 0.25683182 -1.4340183
0.38461569 0.25309858 -1.4269
0.39954001 0.2485 -1.4209
0.36523232 0.24611615 -1.4146538
0.37380663 0.241225 -1.4070333
0.42596197 0.23892999 -1.4022
0.44095334 0.23088665 -1.3884001
0.44242832 0.21680166 -1.3646833
0.35528836 0.21214253 -1.3560749
0.342365 0.20906 -1.35325
0.35433337 0.20641668 -1.3454667
0.32494602 0.202213 -1.33798
0.39536399 0.19896799 -1.3339199
0.38447064 0.1942125 -1.3249688
0.33417332 0.19054668 -1.3185166
0.32488933 0.18758141 -1.3136643
0.33524728 0.18281908 -1.3054
0.3445825 0.17981499 -1.3015251
0.33405498 0.17630999 -1.2950642
0.32373875 0.17200626 -1.2874751
0.33533832 0.16890831 -1.2823333
0.58335 0.033050001 -1.3641
0.61998999 0.031941999 -1.4353
0.60275 0.013114 -1.4097
-0.18471 -0.28447571 -1.9132355
-0.19493167 -0.28850502 -1.9083666
-0.18500002 -0.29187599 -1.9052799
-0.1748077 -0.29593998 -1.8944538
-0.1671 -0.29935667 -1.8881
-0.18681 -0.30024999 -1.8901
-0.19578166 -0.30251834 -1.8838333
-0.20412077 -0.30560538 -1.8756
-0.21037 -0.30825999 -1.8692
-0.21819499 -0.31057501 -1.8708
-0.20428999 -0.31292418 -1.8651248
-0.23405081 -0.31680167 -1.8559165
-0.22434001 -0.31999999 -1.8479
-0.41430396 -0.32182503 -1.84445
-0.3853389 -0.32744333 -1.835789
-0.39435336 -0.33088335 -1.8336
-0.3852233 -0.33387002 -1.8246168
-0.37548915 -0.33728004 -1.8175417
-0.38559002 -0.34097403 -1.8125799
-0.39562577 -0.34487572 -1.8051929
-0.326345 -0.34815499 -1.79715
-0.33424377 -0.35168251 -1.7929125
-0.32523414 -0.35571745 -1.7854501
-0.35595334 -0.35934332 -1.7785667
-0.36474097 -0.36243498 -1.7748001
-0.37524092 -0.36690271 -1.7650909
-0.36541 -0.370765 -1.76035
-0.58471286 -0.36839288 -1.7577715
-0.59588248 -0.37209874 -1.7539123
-0.22436857 -0.54206145 -1.4509429
-0.23588444 -0.54482555 -1.4446481
-0.086888671 -0.54868835 -1.4370002
-0.096104153 -0.55248541 -1.4345155
-0.085116118 -0.55646288 -1.4261879
-0.11427428 -0.55795282 -1.4183142
-0.045171104 -0.56304848 -1.4159552
-0.055068072 -0.56803924 -1.4053928
-0.04551525 -0.57192749 -1.40245
-0.035079382 -0.57459652 -1.3943825
-0.024358284 -0.57796782 -1.3874215
-0.0146601 -0.58181101 -1.3833001
-0.024614189 -0.585419 -1.3767999
-0.033448 -0.58926338 -1.3691667
-0.025414564 -0.59274817 -1.3630439
-0.13505667 -0.59577549 -1.3546335
-0.12388089 -0.59894449 -1.3468
-0.11478633 -0.6024763 -1.3455368
-0.084097646 -0.60659117 -1.3349719
-0.096753135 -0.60859871 -1.3286625
-0.092424497 -0.61171496 -1.3306501
-0.084604189 -0.61462182 -1.3236409
-0.14498441 -0.63384557 -1.2844959
-0.15430798 -0.63167399 -1.2919701
-0.14464411 -0.62739676 -1.296509
-0.1347681 -0.62319958 -1.3050144
-0.12371334 -0.62067997 -1.3124334
-0.15570444 -0.61687112 -1.3162055
-0.20016 -0.53969002 -1.449
-0.21420251 -0.53797376 -1.4557812
-0.22538123 -0.53430474 -1.465588
-0.23516335 -0.53152335 -1.471911
-0.22553308 -0.52636111 -1.4767038
-0.17586528 -0.52324581 -1.4860474
-0.16556858 -0.52078712 -1.4915571
-0.23504564 -0.5169912 -1.4949625
-0.2047711 -0.51289058 -1.5047832
-0.21405667 -0.51045328 -1.5125667
-0.20581087 -0.50634867 -1.5155227
-0.217365 -0.50542498 -1.5076001
-0.27419165 -0.50125664 -1.5219332
-0.2458322 -0.49861559 -1.5275222
-0.25552851 -0.49528256 -1.534965
-0.26616335 -0.49151996 -1.5423332
-0.27407667 -0.48880997 -1.5476834
-0.26526999 -0.48459473 -1.554247
-0.29468602 -0.48121601 -1.5628198
-0.025071166 -0.47874331 -1.5690833
-0.0347731 -0.47466734 -1.5743527
-0.004994967 -0.47145 -1.5832223
-0.026056999 -0.46878001 -1.5793
-0.0150905 -0.46860668 -1.5876666
-0.0056802705 -0.46486101 -1.595685
-0.6055575 -0.45442814 -1.6065438
-0.60548842 -0.44744077 -1.6151617
-0.63497287 -0.44297361 -1.6250002
-0.62984002 -0.44081998 -1.6309
-0.57544285 -0.43680999 -1.635806
-0.56518 -0.43954501 -1.6294999
-0.62509781 -0.43298647 -1.6434715
-0.63431501 -0.42913002 -1.6474
-0.62434936 -0.42663601 -1.65602
-0.61428267 -0.42209178 -1.6633363
-0.62488663 -0.41880336 -1.6678166
-0.63453543 -0.41564697 -1.6749922
-0.48588857 -0.41181141 -1.6840571
-0.49476749 -0.40835249 -1.68855
-0.48442575 -0.40395498 -1.6949427
-0.51565331 -0.40116 -1.7024666
-0.60505325 -0.39854223 -1.7062111
-0.61467522 -0.3942441 -1.7152412
-0.59514219 -0.38798073 -1.72525
-0.58432096 -0.38334298 -1.73578
-0.58545727 -0.37673932 -1.74506
0.085090749 0.35240251 -1.59785
0.095072746 0.3497625 -1.593575
0.085362561 0.3451457 -1.5844142
0.114045 0.34176001 -1.5795
0.08423575 0.3376725 -1.5720501
0.096197248 0.33353877 -1.5649251
0.089105003 0.32965001 -1.5608
0.15477143 0.32702857 -1.5551714
0.144915 0.32261372 -1.5469625
0.33428669 0.26040998 -1.4383334
0.34587252 0.25765374 -1.4352375
0.35499331 0.25201887 -1.4261889
0.34834999 0.24998 -1.4211
0.33640003 0.24604301 -1.41552
0.325414 0.24208 -1.40784
0.404145 0.23519875 -1.3963624
0.41281998 0.23131999 -1.3881
0.40522999 0.22838427 -1.3836714
0.43502223 0.2228778 -1.3748889
0.42778 0.22071001 -1.3699
0.4153775 0.21776585 -1.3649665
0.38420901 0.211779 -1.35554
0.39433503 0.208785 -1.351475
0.38528603 0.205273 -1.34536
0.37448287 0.20191287 -1.3381001
0.34513626 0.19874875 -1.334
0.35492301 0.19396499 -1.3253
0.36720002 0.19084501 -1.3190501
0.37448886 0.1877 -1.3143111
0.36460429 0.18293074 -1.304693
0.39997 0.17969 -1.3006001
0.36458158 0.17636308 -1.2946693
0.37492555 0.17202222 -1.2871667
0.36473835 0.169025 -1.2816334
0.54193997 0.032648999 -1.2944
-0.16611999 -0.27941 -1.9195
-0.23581283 -0.28458571 -1.9126285
-0.22513887 -0.28771332 -1.9073443
-0.23420334 -0.29163 -1.9022499
-0.20566002 -0.29690099 -1.8946202
-0.21458001 -0.29905 -1.8879334
-0.23029 -0.30028999 -1.8904001
-0.22462857 -0.30149856 -1.8855143
-0.17462 -0.30575907 -1.8746635
-0.16449 -0.31074333 -1.8718001
-0.17520401 -0.31286335 -1.8639199
-0.18525666 -0.31779447 -1.8561666
-0.19704001 -0.31832999 -1.849
-0.45811501 -0.32043499 -1.8504
-0.44525599 -0.322936 -1.84399
-0.34138 -0.32813999 -1.8296
-0.35489181 -0.32691637 -1.8365548
-0.34780002 -0.331415 -1.8311501
-0.35444003 -0.33341375 -1.8264126
-0.32365751 -0.33922249 -1.8146499
-0.35457501 -0.34124002 -1.8130168
-0.34511122 -0.34491375 -1.804575
-0.37516499 -0.34795833 -1.7977834
-0.36429635 -0.35205275 -1.7934182
-0.37495247 -0.3565267 -1.7854667
-0.33527553 -0.36217108 -1.7746667
-0.32458082 -0.36718997 -1.7652584
-0.63443333 -0.36839667 -1.7577667
-0.62499154 -0.37289539 -1.7540461
-0.19352001 -0.54166889 -1.4514222
-0.18366952 -0.54458952 -1.4457953
-0.13483 -0.54926002 -1.4371833
-0.12528533 -0.55194074 -1.4343867
-0.13449101 -0.55585051 -1.4260001
-0.026399666 -0.56103998 -1.4219168
-0.14427599 -0.55880398 -1.4159601
-0.015239583 -0.56413728 -1.4145967
-0.0046204193 -0.56805539 -1.4064231
-0.073150001 -0.56941998 -1.3995
-0.013147555 -0.57178771 -1.4015777
-0.064794764 -0.57402766 -1.3949562
-0.074573003 -0.57841533 -1.3866845
-0.045248818 -0.58172822 -1.3843726
-0.074460201 -0.5851348 -1.3760359
-0.06543418 -0.58901823 -1.366209
-0.075027928 -0.59194845 -1.3628845
-0.0840137 -0.59596574 -1.3552461
-0.094196662 -0.59846109 -1.3484445
-0.14401692 -0.60201991 -1.343177
-0.13496248 -0.60644305 -1.335255
-0.12522 -0.61078203 -1.33178
-0.12622 -0.60944337 -1.3286667
-0.13498375 -0.61217934 -1.3247187
-0.1150675 -0.6348688 -1.2847937
-0.10382374 -0.63122874 -1.2919874
-0.11529778 -0.62819886 -1.2964944
-0.084626913 -0.62399191 -1.3045409
-0.11160599 -0.61931401 -1.3066599
-0.093381204 -0.62071198 -1.31294
-0.10510857 -0.616669 -1.3168523
-0.17062999 -0.53964001 -1.4489
-0.16494846 -0.53842461 -1.4575385
-0.19474219 -0.53397566 -1.4650348
-0.1956258 -0.52769887 -1.4753368
-0.18161 -0.53004998 -1.4730999
-0.2059994 -0.5239265 -1.4857354
-0.21465251 -0.52064997 -1.492025
-0.18556917 -0.51697004 -1.4956917
-0.17407882 -0.51360291 -1.5039707
-0.17487001 -0.5059821 -1.5143961
-0.16433999 -0.51033998 -1.5122
-0.30550617 -0.50160843 -1.5235385
-0.29473338 -0.49777445 -1.5272555
-0.28464049 -0.49411649 -1.536085
-0.31500497 -0.49158001 -1.5415667
-0.30512357 -0.48836496 -1.5459856
-0.31504264 -0.48367798 -1.5556265
-0.24455251 -0.4802525 -1.5608251
-0.075460665 -0.47750798 -1.5668399
-0.064466774 -0.47515652 -1.5757532
-0.054409198 -0.47161204 -1.5808001
-0.045984253 -0.46802247 -1.5871249
-0.056420665 -0.46369898 -1.5936713
-0.57480752 -0.45412561 -1.6047313
-0.56519198 -0.45130402 -1.6112801
-0.57485747 -0.44796124 -1.616375
-0.58555359 -0.44364786 -1.6238285
-0.61329997 -0.43966502 -1.6266
-0.60459363 -0.43765819 -1.6356819
-0.59509695 -0.4327316 -1.6444999
-0.58596003 -0.43312001 -1.6510999
-0.58476001 -0.42930666 -1.6497332
-0.5947746 -0.42653769 -1.6555692
-0.56415266 -0.42326003 -1.6632864
-0.59402752 -0.41784999 -1.669175
-0.58506173 -0.41553235 -1.6752824
-0.53459001 -0.410815 -1.683875
-0.52420253 -0.40789667 -1.6866751
-0.53429276 -0.4045164 -1.6957545
-0.54397798 -0.40080398 -1.70274
-0.57503802 -0.39643902 -1.70718
-0.56459153 -0.39404997 -1.7147616
-0.62530482 -0.38676265 -1.7250133
-0.5711 -0.38918 -1.7197
-0.63564092 -0.38256818 -1.735909
-0.60306996 -0.38087335 -1.7423667
-0.6360231 -0.37658772 -1.7448922
0.096323393 0.35245201 -1.59658
0.084308505 0.34940749 -1.591925
0.09456443 0.34570715 -1.5859429
0.10605 0.34157002 -1.578625
0.093916178 0.3381733 -1.5730834
0.15114 0.33096999 -1.5592999
0.086216152 0.33277145 -1.563557
0.14333199 0.32716 -1.5537601
0.1549743 0.32240003 -1.5464715
0.39340001 0.29469001 -1.4308
0.32550001 0.26048249 -1.43875
0.35600558 0.25704777 -1.4341445
0.34502727 0.25243273 -1.4259363
0.35808 0.24835999 -1.4201
0.32457107 0.24579446 -1.4150333
0.33405 0.24160859 -1.4077572
0.41576889 0.23473555 -1.3952667
0.40606833 0.23180167 -1.3881832
0.41481251 0.22851624 -1.3838999
0.43419001 0.22006001 -1.37
0.42528003 0.22322461 -1.3746153
0.40508831 0.21742664 -1.3651081
0.39509201 0.21202199 -1.3553901
0.3843925 0.20876999 -1.3513501
0.39526334 0.20529334 -1.3443
0.36570999 0.20150666 -1.3377334
0.35547221 0.19831222 -1.3326888
0.34535286 0.19394855 -1.324807
0.37600002 0.19045001 -1.318625
0.36537102 0.18785802 -1.3141299
0.38390249 0.18079749 -1.2993001
0.37541246 0.18295915 -1.3055667
0.38130999 0.17986 -1.3019
0.37438425 0.17628001 -1.2948571
0.36476889 0.17201558 -1.287189
0.37477374 0.16858001 -1.2814126
0.62382001 0.050143 -1.4258
0.54048997 0.023705 -1.2920001
0.55044001 0.01372 -1.3198
-0.22559001 -0.28432751 -1.914225
-0.23405857 -0.28816858 -1.9067572
-0.224722 -0.29121 -1.9009402
-0.21493332 -0.29617333 -1.8937668
-0.20519334 -0.29966667 -1.8864332
-0.23502891 -0.30215889 -1.8842665
-0.16494545 -0.30667728 -1.8771362
-0.17536202 -0.30784002 -1.8683399
-0.16418444 -0.31329334 -1.8633887
-0.19392125 -0.31729627 -1.85455
-0.45517999 -0.32307702 -1.8448198
-0.34519801 -0.32643899 -1.8352699
-0.35604164 -0.33118168 -1.8316334
-0.34381002 -0.33379787 -1.82415
-0.33593574 -0.33836287 -1.8167429
-0.34495747 -0.34196123 -1.8119875
-0.35492685 -0.34570375 -1.8043625
-0.36192 -0.34902 -1.7999001
-0.37507543 -0.35148817 -1.794009
-0.365944 -0.35561401 -1.7838299
-0.3952671 -0.35849428 -1.7780286
-0.32590398 -0.36225399 -1.7739201
-0.33468351 -0.36696354 -1.7654825
-0.62835002 -0.36858001 -1.7586
-0.32108 -0.37077001 -1.7604001
-0.63486683 -0.37230694 -1.7551847
-0.18557143 -0.54172575 -1.4513429
-0.19479217 -0.54471254 -1.445287
-0.12426833 -0.54868501 -1.4376501
-0.13504077 -0.55224997 -1.4332231
-0.12476781 -0.55673212 -1.4263306
-0.15013 -0.55888999 -1.4179
-0.033576403 -0.56128401 -1.4222801
-0.0040664719 -0.56363201 -1.414796
-0.013956385 -0.56813842 -1.4051309
-0.063667998 -0.56967002 -1.3959
-0.0055811461 -0.57161778 -1.4030668
-0.074254237 -0.57414919 -1.393984
-0.065198839 -0.57774252 -1.3861084
-0.054592554 -0.58085775 -1.3842666
-0.065198615 -0.58487421 -1.3758415
-0.071106002 -0.59015 -1.3712
-0.075411402 -0.58877099 -1.3676399
-0.064629011 -0.59210628 -1.3626819
-0.095361806 -0.59520602 -1.355728
-0.085438006 -0.59936666 -1.3444333
-0.15586391 -0.60223329 -1.342661
-0.12499818 -0.60574847 -1.3358153
-0.134478 -0.61049604 -1.3325399
-0.13619 -0.60963333 -1.3279001
-0.12485137 -0.61274856 -1.3249907
-0.10535923 -0.63457543 -1.2847116
-0.11514385 -0.6315046 -1.2925307
-0.10463824 -0.62817585 -1.2964528
-0.095075443 -0.62355798 -1.3062413
-0.106144 -0.61916602 -1.3069799
-0.086757995 -0.62067747 -1.31185
-0.11508001 -0.61687744 -1.3153962
-0.174169 -0.53812099 -1.4562199
-0.184828 -0.53337365 -1.4654241
-0.19734667 -0.53173 -1.4714333
-0.1855616 -0.52764213 -1.4763949
-0.21495476 -0.52329093 -1.485305
-0.20392001 -0.52077669 -1.4919834
-0.18221 -0.51946497 -1.4874001
-0.19357 -0.51742256 -1.4965376
-0.16380817 -0.51320183 -1.5043499
-0.175234 -0.51159596 -1.5109199
-0.17056 -0.50944 -1.5096
-0.16467749 -0.50714862 -1.5151651
-0.31297714 -0.50151289 -1.5239286
-0.28573087 -0.49814272 -1.5265454
-0.2945765 -0.49349743 -1.5357782
-0.30658603 -0.49236298 -1.5413201
-0.31469691 -0.48752815 -1.5465562
-0.30387801 -0.48427531 -1.5538132
-0.255265 -0.48131832 -1.5624
-0.064381368 -0.47806251 -1.5677999
-0.074423686 -0.47363251 -1.5752312
-0.045317087 -0.47145179 -1.5820819
-0.0546063 -0.46813601 -1.5842501
-0.045101449 -0.46316046 -1.5940049
-0.070483997 -0.45903 -1.5993
-0.56426263 -0.45459664 -1.60586
-0.57443494 -0.45099998 -1.6129001
-0.56474769 -0.44745773 -1.6161923
-0.59447867 -0.44260332 -1.6234868
-0.58344001 -0.44165999 -1.63065
-0.61498886 -0.43734765 -1.6362646
-0.58537555 -0.43232 -1.6462182
-0.59556001 -0.42915002 -1.6492001
-0.58499354 -0.42639428 -1.6553143
-0.57473201 -0.421976 -1.6636
-0.58279997 -0.41835001 -1.6694
-0.59493923 -0.41505784 -1.6760501
-0.52349859 -0.41189429 -1.6823286
-0.53525698 -0.40820104 -1.6875401
-0.52510297 -0.40412301 -1.6965898
-0.55595601 -0.40103596 -1.7021999
-0.56538838 -0.39809251 -1.7047251
-0.57540232 -0.39288849 -1.715723
-0.624385 -0.39131999 -1.7211001
-0.63500637 -0.38675544 -1.7249908
-0.62505305 -0.38232297 -1.73613
-0.62412298 -0.37737998 -1.74431
0.044423338 0.35245499 -1.5955666
0.055459749 0.34955999 -1.592625
0.044835143 0.34573287 -1.5860428
0.074720249 0.34161499 -1.5788
0.046100855 0.33812857 -1.5736285
0.054659821 0.33406454 -1.5657818
0.024791002 0.33074999 -1.5582666
0.035972752 0.32731125 -1.5556624
0.024924126 0.32246748 -1.5462623
0.35678998 0.23884332 -1.4011
0.36501801 0.23451997 -1.3952333
0.36623499 0.227855 -1.3842751
0.39546666 0.22346666 -1.3747599
0.37379497 0.21775599 -1.3649499
0.424411 0.212118 -1.3558401
0.43529001 0.20861 -1.3503
0.42532903 0.20611273 -1.3451455
0.41447201 0.20180199 -1.33904
0.40856999 0.19025999 -1.3196
0.41553247 0.18732625 -1.3132626
0.4043946 0.18328911 -1.3053908
0.43565503 0.17978749 -1.301325
0.40477943 0.1767989 -1.2949723
0.41532362 0.17241363 -1.2877818
0.40475798 0.169 -1.28174
0.58148998 0.10438 -1.3673
0.59258997 0.10093 -1.3774
-0.27886 -0.28628001 -1.9105
-0.26689503 -0.28814498 -1.9060168
-0.27488998 -0.29151499 -1.9014834
-0.24555708 -0.29542997 -1.8963941
-0.25521752 -0.29808253 -1.8864626
-0.26284835 -0.30176666 -1.8829499
-0.29481924 -0.30612075 -1.8760769
-0.28473201 -0.30872801 -1.8670801
-0.29585537 -0.31236458 -1.865123
-0.30492124 -0.31781626 -1.8550375
-0.32468802 -0.32317501 -1.8453598
-0.47586823 -0.32699636 -1.8361001
-0.46503502 -0.32907999 -1.82915
-0.47524151 -0.33358768 -1.8242232
-0.445261 -0.33741 -1.8163999
-0.47430667 -0.34193 -1.8117667
-0.46490911 -0.34475997 -1.8056365
-0.41455498 -0.34813333 -1.7970666
-0.4049758 -0.35164833 -1.7939501
-0.41439575 -0.35539499 -1.7865571
-0.42401004 -0.35918999 -1.7778
-0.45451 -0.36157003 -1.7750428
-0.44486728 -0.36667401 -1.7654198
-0.51723504 -0.36939001 -1.7581501
-0.50607276 -0.37249365 -1.7546
-0.31392333 -0.54094005 -1.4508667
-0.30507091 -0.54418319 -1.4456363
-0.018836999 -0.5492 -1.4397
-0.0059156469 -0.55331278 -1.4356809
-0.016388807 -0.55723953 -1.4258096
-0.14058 -0.56011999 -1.421
-0.13470249 -0.56220144 -1.4128101
-0.12462699 -0.56720489 -1.4061497
-0.10475706 -0.57354879 -1.3949708
-0.11464369 -0.57820904 -1.3850579
-0.087272257 -0.58105379 -1.3817
-0.11487722 -0.58388197 -1.3749079
-0.10491647 -0.58821416 -1.3662647
-0.11462124 -0.59185624 -1.3619
-0.044662476 -0.59645951 -1.3539143
-0.034060001 -0.60029 -1.3502001
-0.056696668 -0.59829223 -1.3484666
-0.025410663 -0.60271716 -1.3438952
-0.015172348 -0.60752255 -1.335748
-0.0033894 -0.61114001 -1.3312
-0.0065124752 -0.60877502 -1.32865
-0.015434946 -0.61227161 -1.3249111
-0.074939042 -0.63397706 -1.2841704
-0.065157637 -0.63177723 -1.2919091
-0.075535998 -0.62770796 -1.2946951
-0.044890337 -0.62358707 -1.3055556
-0.072721995 -0.61913663 -1.3091334
-0.064864099 -0.61812425 -1.3157527
-0.051321998 -0.62002999 -1.3122
-0.29194 -0.53829998 -1.4499
-0.2843675 -0.53764564 -1.4557375
-0.31490386 -0.53307194 -1.4646953
-0.30199999 -0.53117001 -1.4714
-0.31441957 -0.52636433 -1.4759086
-0.30662668 -0.52861667 -1.4691334
-0.24488938 -0.52278125 -1.4849187
-0.31553668 -0.51920664 -1.4874834
-0.25321001 -0.520805 -1.49125
-0.30609086 -0.51594526 -1.4962087
-0.29424155 -0.51190537 -1.5026308
-0.28349859 -0.50878716 -1.5083287
-0.29491287 -0.50574237 -1.5142001
-0.18543199 -0.50208861 -1.5232933
-0.17326501 -0.49883249 -1.5293
-0.1650375 -0.49624336 -1.5351626
-0.19377111 -0.49155107 -1.5436444
-0.18463875 -0.48810375 -1.5466501
-0.19402777 -0.48436165 -1.5546333
-0.20615701 -0.48178297 -1.5623801
-0.11401334 -0.47845754 -1.5662583
-0.10509202 -0.47466534 -1.5750202
-0.09646032 -0.47116226 -1.5828667
-0.086092308 -0.46717995 -1.5857232
-0.095930465 -0.46289995 -1.5952103
-0.53528064 -0.45547134 -1.6035801
-0.52302504 -0.45023 -1.61115
-0.53507328 -0.44852003 -1.6175778
-0.54493076 -0.44338855 -1.6242214
-0.55303001 -0.44049001 -1.6329501
-0.4847436 -0.43664145 -1.6364502
-0.554102 -0.43275067 -1.6443601
-0.54495668 -0.42915332 -1.6491666
-0.55469912 -0.42669165 -1.6564168
-0.52527386 -0.42292151 -1.664454
-0.55543166 -0.41886005 -1.6680166
-0.5323 -0.42025 -1.6701
-0.54501247 -0.41558126 -1.675675
-0.57492 -0.41211665 -1.6843582
-0.56654871 -0.40708375 -1.6889
-0.57524925 -0.40415233 -1.6955075
-0.58345401 -0.40075397 -1.70254
-0.53557307 -0.39689299 -1.70837
-0.52476865 -0.39436468 -1.7154
-0.51414502 -0.39078665 -1.7227668
-0.50583887 -0.38865888 -1.7262888
-0.51394212 -0.38349643 -1.7348573
-0.48497 -0.38093001 -1.7419
-0.5143708 -0.37680075 -1.7445693
0.055444747 0.35292003 -1.598325
0.044779249 0.34913999 -1.5906999
0.066977002 0.34175003 -1.57945
0.054921776 0.34488887 -1.5839443
0.056009252 0.33904001 -1.5745001
0.04421689 0.33326113 -1.5651556
0.025164429 0.32739714 -1.5546857
0.034493428 0.32235286 -1.5462571
0.34474999 0.23943 -1.40338
0.37587547 0.23363815 -1.3942636
0.36766499 0.230125 -1.3896
0.37488124 0.22829625 -1.3847375
0.38516077 0.22316386 -1.3742307
0.36471272 0.21744274 -1.3646728
0.43438306 0.21221101 -1.35657
0.421565 0.20868 -1.35075
0.43497401 0.20557199 -1.34534
0.40383002 0.20181 -1.33815
0.41405749 0.1900375 -1.3180499
0.40467104 0.18785402 -1.3141201
0.41470927 0.18303643 -1.3054429
0.42236 0.17985 -1.3018
0.41472697 0.176918 -1.2942299
0.40574199 0.17197399 -1.2875202
0.41528717 0.16891001 -1.2832716
0.59265 0.062545002 -1.3209
0.56487 0.041549001 -1.3306
-0.26108333 -0.28769335 -1.9113666
-0.27494374 -0.28784376 -1.9066126
-0.26552802 -0.291394 -1.90212
-0.25501221 -0.29448333 -1.896989
-0.24541669 -0.29946998 -1.8852333
-0.27490667 -0.30263332 -1.8841333
-0.285025 -0.30533701 -1.8762602
-0.2854754 -0.31346229 -1.8634384
-0.31511387 -0.31736615 -1.8562922
-0.327115 -0.32042497 -1.8503001
-0.33374998 -0.32278001 -1.843654
-0.46413285 -0.32642716 -1.8359998
-0.47433999 -0.32997 -1.8285
-0.47477332 -0.33158669 -1.8302001
-0.46477196 -0.33367264 -1.8251201
-0.45516667 -0.33762833 -1.8151833
-0.464385 -0.34164751 -1.8127
-0.40506664 -0.34800169 -1.7980169
-0.47461915 -0.34458503 -1.8031834
-0.41507202 -0.351338 -1.79426
-0.40564197 -0.35604101 -1.78497
-0.43405667 -0.35975334 -1.7774
-0.47139001 -0.36041 -1.7806
-0.44615749 -0.36189875 -1.7747875
-0.45464 -0.36596876 -1.7654687
-0.44347 -0.37103 -1.7616
-0.50304002 -0.36993 -1.7564
-0.51454222 -0.37246221 -1.7542112
-0.28819501 -0.53905499 -1.44965
-0.306678 -0.54062998 -1.45064
-0.31555048 -0.54360437 -1.4446095
-0.0041932999 -0.54887998 -1.4389
-0.014764844 -0.55276167 -1.4350212
-0.0051822746 -0.557531 -1.4251478
-0.15517001 -0.56065661 -1.4223334
-0.039107502 -0.55971503 -1.4179001
-0.12456474 -0.56274575 -1.4147631
-0.1246075 -0.57108748 -1.40355
-0.13379095 -0.56723911 -1.4047
-0.1150656 -0.57356399 -1.3946439
-0.096364997 -0.58066994 -1.385157
-0.10585713 -0.57779431 -1.3864094
-0.10539154 -0.58350998 -1.375504
-0.11417177 -0.58848816 -1.3662294
-0.1056977 -0.59257919 -1.3614461
-0.054520797 -0.59533972 -1.3552266
-0.042575799 -0.59788799 -1.34834
-0.035476126 -0.60179698 -1.3436062
-0.004923529 -0.60714954 -1.3350695
-0.011793 -0.60929 -1.3271
-0.0173655 -0.61068499 -1.3302
-0.0050489665 -0.6135574 -1.3233734
-0.064718306 -0.63516313 -1.2843239
-0.0745055 -0.62963998 -1.2871499
-0.076135248 -0.63109499 -1.2909
-0.065317035 -0.62760073 -1.2960852
-0.055105671 -0.62293291 -1.3051957
-0.065779433 -0.61929715 -1.3087
-0.045629248 -0.62101501 -1.3109001
-0.075415701 -0.61744654 -1.31533
-0.2950488 -0.53697234 -1.4561353
-0.30529094 -0.53316909 -1.4653046
-0.31920999 -0.52995002 -1.4680001
-0.31603 -0.53055501 -1.4721
-0.30450219 -0.52620614 -1.4760444
-0.25472841 -0.52306378 -1.4845368
-0.30530003 -0.51937598 -1.48862
-0.244275 -0.52136499 -1.49045
-0.31579885 -0.51633936 -1.4937942
-0.28502214 -0.51255429 -1.5044929
-0.29471999 -0.50922859 -1.5067856
-0.28506437 -0.50498784 -1.5155653
-0.19587286 -0.50158852 -1.5247713
-0.16607666 -0.49981999 -1.526
-0.18172 -0.50128001 -1.5306
-0.17591435 -0.49506041 -1.5349566
-0.18613125 -0.49180999 -1.5432875
-0.19440909 -0.4881345 -1.5469546
-0.18407901 -0.48422351 -1.55528
-0.21452336 -0.48076499 -1.5625
-0.10539999 -0.477918 -1.56678
-0.1144845 -0.4741385 -1.574695
-0.1058 -0.46920332 -1.5787667
-0.08500772 -0.47071284 -1.5824999
-0.095422454 -0.46730539 -1.5870845
-0.084622897 -0.46347633 -1.5959736
-0.55690002 -0.46097001 -1.6001
-0.11651333 -0.4593133 -1.5982333
-0.52484298 -0.45429453 -1.6050348
-0.535586 -0.45145202 -1.61243
-0.52524906 -0.44834095 -1.61568
-0.55505526 -0.44333237 -1.6247824
-0.54218668 -0.44096664 -1.6325001
-0.49361545 -0.43730906 -1.6373546
-0.54471499 -0.43349445 -1.6436279
-0.55450404 -0.42904601 -1.64744
-0.54465336 -0.42733333 -1.65655
-0.53478819 -0.42238453 -1.6638274
-0.54601002 -0.41879401 -1.6684799
-0.52651 -0.42038 -1.6707
-0.55504203 -0.41515738 -1.6760734
-0.56498915 -0.41174999 -1.6840916
-0.57483196 -0.40795201 -1.6880001
-0.56522584 -0.40480086 -1.6954333
-0.59496146 -0.40167999 -1.7023573
-0.52631146 -0.39811143 -1.707943
-0.53354603 -0.39352599 -1.7140799
-0.50628 -0.39137501 -1.7213
-0.51554143 -0.38778999 -1.7272857
-0.50541538 -0.38378224 -1.7342155
-0.495285 -0.38110501 -1.7407
-0.50484157 -0.37754387 -1.7447387
-0.49946001 -0.37906 -1.7395
0.064026996 0.35254502 -1.5985249
0.075283669 0.34975997 -1.5935332
0.064520702 0.34489998 -1.585
0.0539045 0.34162 -1.57885
0.066524602 0.33818397 -1.5736401
0.075036302 0.33348602 -1.56523
0.0057881502 0.33105999 -1.5597
0.01617825 0.32711625 -1.5547374
0.0047906949 0.32263625 -1.547075
0.33693799 0.238162 -1.40118
0.38516816 0.23538817 -1.3960545
0.3949725 0.2313275 -1.3881249
0.38482714 0.22833429 -1.3833714
0.37507385 0.22347155 -1.3754998
0.36368999 0.22007 -1.37
0.39509359 0.21732429 -1.3647144
0.40513584 0.21172918 -1.3556666
0.41327399 0.20838399 -1.3508199
0.40406284 0.20518 -1.3440001
0.4351925 0.20085 -1.3366749
0.44330001 0.1988925 -1.3338749
0.42570001 0.19021499 -1.31925
0.43475831 0.18821166 -1.3147501
0.42356253 0.18279874 -1.3055249
0.41745999 0.17985 -1.3017666
0.42529735 0.17636667 -1.2949067
0.434908 0.17169198 -1.28722
0.42488873 0.16878 -1.2829375
0.58583999 0.10991 -1.385
0.59103 0.096029997 -1.3648
-0.19978 -0.053025998 -1.7299
-0.25584668 -0.28580666 -1.9118
-0.24482284 -0.28872141 -1.9068002
-0.256955 -0.2911675 -1.90275
-0.26528457 -0.29556 -1.8958545
-0.27357998 -0.29974666 -1.8869333
-0.24516334 -0.3028011 -1.8816446
-0.315413 -0.30666 -1.8752401
-0.30280501 -0.30910498 -1.86815
-0.30946001 -0.31072 -1.8716
-0.31409335 -0.31211001 -1.8641222
-0.28491098 -0.316948 -1.8557901
-0.29146001 -0.31997001 -1.8477
-0.34542713 -0.32245427 -1.843757
-0.45483276 -0.32749999 -1.8352001
-0.44295001 -0.32986999 -1.8279999
-0.44655001 -0.33028999 -1.8303
-0.45477274 -0.33367726 -1.8240818
-0.46501625 -0.3380512 -1.8145626
-0.47486749 -0.339315 -1.807675
-0.45567665 -0.34105328 -1.8120165
-0.44568127 -0.344385 -1.804125
-0.43460998 -0.34821498 -1.7948501
-0.42345601 -0.35118198 -1.7934799
-0.43498355 -0.3559857 -1.7861216
-0.40387332 -0.35794333 -1.7781667
-0.44986999 -0.36032 -1.7802
-0.47454801 -0.36078399 -1.77542
-0.46561816 -0.36571819 -1.7658362
-0.495 -0.36959249 -1.754775
-0.48487857 -0.37138996 -1.7548286
-0.29593247 -0.54040247 -1.4509749
-0.31826499 -0.539855 -1.4495001
-0.28555182 -0.5452168 -1.4434319
-0.035511114 -0.54836446 -1.4379112
-0.024791941 -0.55257702 -1.4343764
-0.034927722 -0.55737996 -1.42565
-0.0075363 -0.55967999 -1.4198999
-0.15504897 -0.5629999 -1.4141413
-0.14498705 -0.56719595 -1.4047815
-0.15937001 -0.57085001 -1.403
-0.094652504 -0.56966501 -1.3979499
-0.084702522 -0.57334036 -1.3954175
-0.095346726 -0.57733208 -1.3883072
-0.10179 -0.58062005 -1.3853
-0.09586139 -0.58395892 -1.3756856
-0.085500903 -0.58905816 -1.3673636
-0.095418617 -0.59142768 -1.3637229
-0.065716498 -0.59530813 -1.355309
-0.010632 -0.60124505 -1.3505001
-0.073202744 -0.59869498 -1.3474624
-0.005624875 -0.60288495 -1.3436849
-0.035680462 -0.60669291 -1.3365126
-0.020826001 -0.61076999 -1.3304
-0.024424 -0.60980999 -1.3283
-0.034453291 -0.61338818 -1.3250482
-0.055418413 -0.63454109 -1.2847732
-0.046076376 -0.63112754 -1.293425
-0.0437872 -0.62933004 -1.2887199
-0.055053104 -0.62695324 -1.2964896
-0.065616995 -0.62363559 -1.3050559
-0.078777999 -0.62075001 -1.3103
-0.051495999 -0.61918002 -1.307
-0.045493726 -0.61792183 -1.3161727
-0.30479223 -0.53765005 -1.4556613
-0.2944074 -0.53345889 -1.4645001
-0.28108999 -0.52939999 -1.4665
-0.29502943 -0.52717364 -1.4756052
-0.28579 -0.53023505 -1.4735999
-0.26503184 -0.52267933 -1.4840688
-0.2926625 -0.51807249 -1.4871249
-0.27610999 -0.52083755 -1.4913499
-0.28516474 -0.51627481 -1.4945158
-0.31512752 -0.51248878 -1.5045127
-0.31547561 -0.50508559 -1.5146719
-0.30406249 -0.50871253 -1.508625
-0.1644125 -0.50235498 -1.5237875
-0.19599199 -0.49822196 -1.52942
-0.18481001 -0.49512044 -1.53496
-0.17553727 -0.49191907 -1.545391
-0.16570273 -0.4882209 -1.5477637
-0.17538455 -0.48508546 -1.5538635
-0.22761001 -0.48063999 -1.5621001
-0.095740832 -0.47874498 -1.5681167
-0.08544568 -0.47431573 -1.5755894
-0.11179201 -0.47125798 -1.58188
-0.10436777 -0.46743667 -1.5846667
-0.11407315 -0.46366209 -1.5953263
-0.55496061 -0.45461476 -1.6058117
-0.54548335 -0.45185336 -1.6117998
-0.55531204 -0.44735903 -1.6165699
-0.54710001 -0.44817001 -1.61
-0.52496684 -0.444015 -1.6241685
-0.53406334 -0.44066668 -1.6314
-0.51815999 -0.439275 -1.62845
-0.50461286 -0.43679568 -1.6351073
-0.53435999 -0.43271455 -1.6447091
-0.53514314 -0.42743504 -1.6555125
-0.52399331 -0.42880332 -1.6478
-0.54505235 -0.42249537 -1.6644154
-0.53625339 -0.41818833 -1.6688334
-0.52548069 -0.41632709 -1.6763647
-0.59519398 -0.41120499 -1.6851099
-0.58506143 -0.40811139 -1.6867714
-0.59464383 -0.40479848 -1.6942309
-0.56352335 -0.40307331 -1.7005833
-0.55486298 -0.39783698 -1.7077599
-0.52974999 -0.39897001 -1.6995
-0.54498249 -0.39387083 -1.714425
-0.4932225 -0.39050499 -1.7235
-0.48513618 -0.38768536 -1.724154
-0.4956691 -0.38322094 -1.736609
-0.50471002 -0.38137999 -1.7419
-0.49413002 -0.37696999 -1.7440616
0.0060585751 0.35218751 -1.5969
0.015612 0.34919333 -1.5909333
0.035603251 0.34130001 -1.577325
0.0049778889 0.34501669 -1.5845332
0.0050802832 0.33809999 -1.5727501
0.068345003 0.33090001 -1.559
0.014391429 0.33302715 -1.5647714
0.073995851 0.32761714 -1.5545428
0.065308869 0.32219249 -1.5449126
0.4156875 0.26086751 -1.4388
0.42397833 0.25762665 -1.4351
0.43387145 0.25300714 -1.426357
0.41506186 0.24615376 -1.4150689
0.40349001 0.24193001 -1.4086
0.39567 0.239125 -1.40205
0.3389 0.23147 -1.3890001
0.32485458 0.23462309 -1.3952923
0.32462221 0.22777444 -1.3828444
0.35486597 0.22322102 -1.37657
0.34643 0.22005001 -1.3699
0.33488002 0.217393 -1.3644699
0.42501858 0.19839858 -1.3321286
0.44205999 0.19162333 -1.3166667
0.43513152 0.19512537 -1.3261077
0.44314083 0.18387417 -1.3058833
0.44402099 0.17575499 -1.29476
0.44441125 0.16822 -1.2823751
0.60105997 0.087774001 -1.3631999
0.62263 0.080421001 -1.3812
0.61282998 0.062792003 -1.3554
-0.30515623 -0.28765503 -1.9053875
-0.31812999 -0.29141667 -1.9032334
-0.28538194 -0.29543734 -1.8950866
-0.29600573 -0.2986843 -1.8883001
-0.30506402 -0.30195397 -1.8833799
-0.25452539 -0.30684537 -1.8762616
-0.24463333 -0.31108999 -1.8738999
-0.2550092 -0.31274769 -1.8646692
-0.26498428 -0.31799859 -1.8544714
-0.36479229 -0.32377461 -1.8433
-0.42460001 -0.32820001 -1.8299
-0.43499225 -0.32740444 -1.8355999
-0.42478502 -0.33032501 -1.8305
-0.43573305 -0.33345234 -1.8234922
-0.40513083 -0.33792916 -1.8160334
-0.41196001 -0.33965999 -1.8095
-0.43401504 -0.34105337 -1.8120333
-0.42449397 -0.34506604 -1.8044335
-0.45614859 -0.34876999 -1.7958573
-0.44454604 -0.35232002 -1.79166
-0.45395073 -0.35506788 -1.78615
-0.464876 -0.35877401 -1.7763799
-0.41522443 -0.36248553 -1.7733111
-0.40499914 -0.36729917 -1.7657999
-0.55309999 -0.36876333 -1.7594999
-0.411715 -0.37086499 -1.76085
-0.54509431 -0.37201855 -1.7554001
-0.25582999 -0.53981501 -1.44935
-0.2762033 -0.54136497 -1.4527835
-0.26582137 -0.5446859 -1.4459774
-0.054397002 -0.54814911 -1.4369001
-0.044972077 -0.55224919 -1.4338845
-0.054777566 -0.55645859 -1.4263953
-0.064049505 -0.55833668 -1.4191166
-0.103095 -0.56072998 -1.4225
-0.095836751 -0.56255352 -1.4147301
-0.084820583 -0.56720477 -1.4061617
-0.097641751 -0.57072747 -1.4037501
-0.15202001 -0.56945997 -1.3995
-0.14583333 -0.57337457 -1.394725
-0.15517166 -0.57698989 -1.3853055
-0.12467834 -0.58213502 -1.3814667
-0.15452521 -0.58451223 -1.3748913
-0.14518 -0.58839709 -1.3655499
-0.15573876 -0.59173876 -1.3635501
-0.0050130687 -0.59578371 -1.3540475
-0.078387998 -0.60043001 -1.3505
-0.015532874 -0.59812129 -1.3479501
-0.065612994 -0.60219598 -1.3435867
-0.054613274 -0.60622114 -1.3355463
-0.041556001 -0.61096001 -1.3325
-0.046369001 -0.60961002 -1.3278334
-0.054393377 -0.61344045 -1.3242375
-0.035108913 -0.63442171 -1.2842522
-0.024914762 -0.63227129 -1.293
-0.035546765 -0.62749702 -1.2964234
-0.0049346858 -0.62383854 -1.305362
-0.015048333 -0.62156504 -1.3115166
-0.024250127 -0.61755878 -1.3166687
-0.24517584 -0.53814667 -1.45515
-0.27465883 -0.53388 -1.4640601
-0.27557683 -0.52742839 -1.4765526
-0.28419647 -0.52275598 -1.484895
-0.29661 -0.52029002 -1.4922
-0.26487187 -0.51648957 -1.4958907
-0.25539061 -0.51191378 -1.5031375
-0.24557501 -0.5093475 -1.5080251
-0.25467685 -0.50607687 -1.5144895
-0.2249794 -0.50240827 -1.5236588
-0.21506 -0.49933001 -1.52935
-0.20523565 -0.49514312 -1.5352688
-0.23587333 -0.49135774 -1.5435777
-0.22563502 -0.48712873 -1.5481625
-0.23596857 -0.48464146 -1.5536858
-0.16573001 -0.4815011 -1.5630112
-0.15580167 -0.47839084 -1.5660501
-0.14575 -0.47388092 -1.5743523
-0.13280858 -0.47154143 -1.5828999
-0.15482 -0.46994999 -1.5774
-0.124476 -0.46776804 -1.5853934
-0.1358275 -0.46308878 -1.5952063
-0.14223 -0.45919001 -1.5998
-0.49580145 -0.45481285 -1.6042212
-0.488765 -0.45113 -1.6113
-0.48372999 -0.44951665 -1.6086
-0.49541155 -0.44777387 -1.6173078
-0.50526851 -0.44434768 -1.6258076
-0.514 -0.44149336 -1.6322333
-0.52389902 -0.43736902 -1.6353
-0.51521921 -0.43311772 -1.644946
-0.51416469 -0.42690399 -1.6547669
-0.50265002 -0.42931998 -1.64985
-0.48484293 -0.42266175 -1.6631174
-0.5146414 -0.4191772 -1.6658714
-0.50545949 -0.41613901 -1.6758045
-0.61416197 -0.411194 -1.68214
-0.60469627 -0.40828127 -1.6863874
-0.61507726 -0.40364531 -1.6953269
-0.62427247 -0.4007625 -1.701425
-0.49511749 -0.39721751 -1.7064624
-0.48493496 -0.39374003 -1.7151752
-0.55382335 -0.39061999 -1.7234
-0.54534 -0.38771334 -1.7265668
-0.55470002 -0.38327169 -1.7337917
-0.55472493 -0.37748328 -1.7455082
0.035832334 0.35257503 -1.5974001
0.025318002 0.34952998 -1.5924667
0.035004247 0.34528002 -1.5844876
0.0050356598 0.34136999 -1.5776666
0.034527 0.3378143 -1.572157
0.024791 0.3347086 -1.5663427
0.058207002 0.33113 -1.5599999
0.030028 0.32951 -1.5601
0.044986501 0.32789627 -1.5564624
0.055266999 0.32239124 -1.5458748
0.42435998 0.26052749 -1.4389751
0.41521716 0.25770286 -1.4349287
0.43610001 0.25123 -1.42
0.41496 0.24979 -1.4201
0.40495461 0.25276849 -1.426023
0.42431083 0.2458725 -1.4145168
0.4349575 0.24221124 -1.408125
0.36409667 0.23911667 -1.4026999
0.35425451 0.23469637 -1.3943182
0.3427 0.23151499 -1.38925
0.35474771 0.22747387 -1.3820922
0.32578084 0.22318165 -1.3744334
0.34472376 0.21769001 -1.3645875
0.44330999 0.20874 -1.3512
0.41587502 0.199055 -1.3327
0.40524599 0.19379133 -1.3244133
0.44525999 0.1806 -1.2979
0.44521204 0.17897001 -1.3012199
0.60516 0.092724003 -1.3801
-0.29369101 -0.28694302 -1.90741
-0.2836175 -0.29111749 -1.9024251
-0.31461254 -0.29436168 -1.8954834
-0.28652 -0.30043 -1.8913
-0.304885 -0.29900834 -1.8877
-0.29385599 -0.30232799 -1.88362
-0.26567867 -0.30533466 -1.8771999
-0.277055 -0.31098002 -1.87325
-0.26507333 -0.31364083 -1.8634416
-0.25551999 -0.31781781 -1.8562999
-0.39626375 -0.32203627 -1.8464125
-0.40419096 -0.32683301 -1.8374698
-0.41584334 -0.33067998 -1.8324667
-0.405375 -0.33287102 -1.8255199
-0.43489334 -0.33828497 -1.8170501
-0.4021 -0.34055001 -1.8143001
-0.4146018 -0.34455544 -1.8062911
-0.46541667 -0.34741163 -1.7982832
-0.47599638 -0.35206637 -1.7943457
-0.46421623 -0.35561812 -1.7856625
-0.45507666 -0.35822999 -1.7763667
-0.42543778 -0.36206445 -1.7741333
-0.43481311 -0.365455 -1.7657063
-0.53548431 -0.37175852 -1.7541571
-0.24532124 -0.54094881 -1.4524375
-0.25553212 -0.54279631 -1.4447895
-0.064237185 -0.54819638 -1.4378999
-0.074516341 -0.55223304 -1.4347699
-0.054777499 -0.5587166 -1.4194168
-0.064324833 -0.55636716 -1.4256334
-0.095831752 -0.56064498 -1.4223
-0.10553334 -0.56295955 -1.4147667
-0.114791 -0.5667575 -1.406235
-0.10591199 -0.57165205 -1.4037001
-0.13511333 -0.57325262 -1.394974
-0.1244223 -0.57875001 -1.3854539
-0.15604669 -0.58153224 -1.3822111
-0.1243474 -0.58430654 -1.3757087
-0.13547572 -0.58815211 -1.3668429
-0.12537251 -0.59151256 -1.3623918
-0.035252262 -0.59595126 -1.355126
-0.046883002 -0.60051 -1.3506501
-0.024175799 -0.59920001 -1.3473501
-0.055212695 -0.60253954 -1.3441912
-0.065089971 -0.60633355 -1.3350893
-0.073441751 -0.6092875 -1.3280001
-0.078583002 -0.61080003 -1.3304
-0.064775392 -0.6139341 -1.3238161
-0.0046634679 -0.63428402 -1.284725
-0.0145247 -0.630871 -1.2935001
-0.004438011 -0.62746722 -1.2972
-0.026466999 -0.63038999 -1.3004
-0.034077398 -0.62387198 -1.3042152
-0.025309497 -0.62095833 -1.3130167
-0.015256822 -0.61728609 -1.3161714
-0.27414668 -0.53792751 -1.4560418
